125.1500 294.4100 1.1900
157.7000 302.4500 6.8400
128.6200 294.4400 1.1900
144.7100 302.4700 6.8400
180.1200 294.4500 1.1900
157.2900 302.4900 6.8400
180.2700 294.4700 1.1900
154.6400 290.9900 8.4100
157.8800 302.5200 6.8400
170.8800 302.5200 6.8400
170.3000 281.3700 1.6300
124.9600 294.4900 1.1900
125.0700 294.4900 1.1900
183.4500 286.2000 5.0200
183.5500 286.2000 5.0200
154.4300 291.0200 8.4100
128.5100 294.5000 1.1900
144.8700 302.5500 6.8400
141.5500 291.0300 8.4100
131.3100 281.4000 1.6300
157.2900 281.4000 1.6300
170.4800 281.4000 1.6300
131.4300 286.2200 5.0200
131.5300 286.2200 5.0200
144.4700 286.2200 5.0200
144.5700 286.2400 5.0200
138.2400 288.7900 1.9800
131.5400 281.4300 1.6300
180.0100 291.0800 8.4100
157.3900 281.4400 1.6300
157.5000 281.4400 1.6300
144.3800 286.2700 5.0200
183.3700 286.2700 5.0200
183.6300 286.2700 5.0300
157.3000 302.5900 6.8400
177.2500 283.0600 2.7600
144.7100 302.6000 6.8400
157.7000 302.6100 6.8400
138.3200 283.0800 2.7600
131.3500 286.3000 5.0200
131.6200 286.2900 5.0200
137.6200 283.1100 2.7600
144.3100 302.6400 6.8400
170.3500 302.6400 6.8400
144.6300 286.3300 5.0200
183.6500 286.3700 5.0200
144.3400 286.3800 5.0200
157.3100 302.7100 6.8400
156.3300 309.4100 1.8800
131.3400 286.4000 5.0200
170.7100 302.7300 6.8400
170.3300 302.7400 6.8400
183.5100 291.2300 8.4100
144.6300 286.4400 5.0200
144.3200 302.7600 6.8400
131.4600 291.2500 8.4100
156.4200 309.4600 1.8800
144.4400 291.2600 8.4100
131.6300 286.4500 5.0200
144.7200 302.7800 6.8400
183.4000 286.4600 5.0200
131.5700 291.2800 8.4100
183.4100 291.2800 8.4100
183.6000 286.4700 5.0200
144.3800 286.4800 5.0200
157.3000 302.8100 6.8400
144.5800 291.3100 8.4100
170.3900 302.8200 6.8400
131.4000 286.5000 5.0200
183.5900 291.3300 8.4100
131.5400 286.5200 5.0200
144.5600 286.5200 5.0300
183.5000 286.5100 5.0200
170.7200 302.8400 6.8400
156.3200 309.5400 1.8900
144.3000 302.8600 6.8400
128.4900 291.3500 8.4100
131.4200 291.3500 8.4100
144.4000 291.3600 8.4100
144.7000 302.8900 6.8400
183.3800 291.3800 8.4100
131.6000 291.3900 8.4100
157.7000 302.9000 6.8400
170.3200 302.9000 6.8400
157.3100 302.9100 6.8400
144.6200 291.4200 8.4100
183.5500 291.4300 8.4100
170.7200 302.9500 6.8400
157.3000 303.0100 6.8400
157.7000 303.0100 6.8400
170.3300 303.0100 6.8400
144.7000 303.0300 6.8400
144.4600 298.2200 3.4500
157.4500 298.2200 3.4500
170.7100 303.0500 6.8400
131.4700 298.2300 3.4500
144.5600 298.2300 3.4500
157.5500 298.2300 3.4500
131.5700 298.2400 3.4500
151.0500 281.9200 1.6300
131.4700 278.4500 8.8600
157.4700 278.4400 8.8500
170.5000 278.4400 8.8600
183.4400 278.4400 8.8600
183.5500 278.4400 8.8500
177.0000 285.1500 3.8900
144.4500 278.4600 8.8600
170.6000 278.4600 8.8500
128.0700 303.0900 6.8400
131.5700 278.4700 8.8500
144.5500 278.4700 8.8600
144.3700 298.2800 3.4500
127.9700 303.1000 6.8400
150.9200 281.9600 1.6300
157.3700 298.2900 3.4500
157.6400 298.3000 3.4500
131.3600 278.4900 8.8500
157.3700 278.4900 8.8500
157.5600 278.4900 8.8600
157.7000 303.1200 6.8400
170.4300 303.1200 6.8400
180.2700 285.1900 3.8900
144.6400 298.3100 3.4500
170.4100 278.5000 8.8600
183.6300 278.5000 8.8600
144.7100 303.1300 6.8400
183.3500 278.5100 8.8600
183.3700 298.3300 3.4500
157.3200 303.1400 6.8400
141.4900 285.2100 3.8900
176.9100 285.2100 3.8900
170.7200 303.1500 6.8400
131.6400 298.3400 3.4500
144.3700 278.5300 8.8600
182.2600 290.1800 2.5400
177.0600 285.2300 3.8900
131.6300 278.5500 8.8600
144.6300 278.5400 8.8600
170.6600 278.5400 8.8500
179.9900 303.1700 6.8400
144.3200 303.1800 6.8400
134.5000 285.2500 3.8900
141.5800 285.2600 3.8900
180.1100 285.2600 3.8900
157.6200 278.5800 8.8500
131.3400 303.2000 6.8400
131.4400 303.2000 6.8400
131.5500 303.2000 6.8400
157.3500 298.3900 3.4500
151.0300 285.2800 3.8900
131.3300 278.5900 8.8600
157.3200 278.5900 8.8600
131.6500 303.2200 6.8400
157.6900 303.2200 6.8400
134.4100 285.3000 3.8900
134.5900 285.3000 3.8900
138.0700 285.2900 3.8900
141.4200 285.2900 3.8900
147.4500 285.3000 3.8900
150.9300 285.2900 3.8900
180.3200 285.2900 3.8900
144.6500 298.4100 3.4500
170.3700 278.6000 8.8600
183.3600 278.6100 8.8600
183.6600 278.6100 8.8600
137.9100 285.3100 3.8900
147.5500 285.3100 3.8900
176.9000 285.3100 3.8900
170.7100 303.2500 6.8400
177.1100 285.3200 3.8900
131.6400 298.4400 3.4500
144.3500 278.6300 8.8600
180.0000 303.2700 6.8400
144.6500 278.6400 8.8500
170.6700 278.6400 8.8600
131.6300 278.6500 8.8500
170.3300 303.2800 6.8400
141.5900 285.3600 3.8900
151.0900 285.3700 3.8900
157.6200 278.6800 8.8600
147.3900 285.3800 3.8900
131.3500 278.6900 8.8500
144.4000 298.5000 3.4500
157.3300 278.6900 8.8600
144.7000 303.3300 6.8400
157.6900 303.3200 6.8400
138.0800 285.3900 3.8900
150.9300 285.3900 3.8900
180.3000 285.3900 3.8900
131.5600 298.5200 3.4500
144.5700 298.5100 3.4500
170.3800 278.7000 8.8600
183.6100 278.7000 8.8500
134.5400 285.4000 3.8900
147.6000 285.4000 3.8900
141.5000 290.2200 7.2800
183.4000 278.7100 8.8600
151.0200 282.2000 1.6300
157.4500 298.5300 3.4500
170.7200 303.3600 6.8400
137.9300 285.4200 3.8900
141.5100 285.4200 3.8900
131.5700 278.7300 8.8600
154.4000 290.2400 7.2800
154.6300 290.2400 7.2800
144.3900 278.7300 8.8600
144.6000 278.7300 8.8500
170.6000 278.7300 8.8600
157.3000 303.3700 6.8400
183.1600 288.6500 6.1500
147.4400 282.2300 1.6300
147.5500 282.2300 1.6300
154.4900 282.2300 1.6300
176.9400 282.2300 1.6300
177.0500 282.2300 1.6300
154.5000 290.2600 7.2800
183.5000 278.7500 8.8500
150.9200 282.2400 1.6300
180.1500 282.2400 1.6300
131.4300 278.7600 8.8600
170.4600 278.7600 8.8500
131.1800 288.6700 6.1500
134.4400 282.2500 1.6300
137.9300 282.2500 1.6300
138.0300 282.2500 1.6300
180.2700 282.2500 1.6300
131.3400 303.4000 6.8400
151.0000 285.4700 3.8900
134.5500 282.2600 1.6300
151.1000 282.2700 1.6300
154.3900 282.2700 1.6300
154.5900 282.2600 1.6300
170.3300 303.4100 6.8400
179.9600 303.4200 6.8400
147.5500 285.4900 3.8900
141.5600 290.3100 7.2800
147.6300 282.3000 1.6300
177.1300 282.3000 1.6300
157.7000 303.4400 6.8400
147.3700 282.3100 1.6300
176.8600 282.3100 1.6300
180.0600 282.3100 1.6300
170.7200 303.4600 6.8400
134.3500 282.3300 1.6300
134.6300 282.3300 1.6300
137.8500 282.3300 1.6300
138.1100 282.3200 1.6300
150.8400 282.3200 1.6300
180.3500 282.3300 1.6300
180.0300 290.3600 7.2800
144.7100 303.4700 6.8400
157.3000 303.4700 6.8400
141.5500 288.7700 6.1500
154.6500 282.3600 1.6300
182.2400 290.5200 2.5400
131.4900 303.5100 6.8400
170.3200 303.5100 6.8400
154.3400 282.3700 1.6300
151.1400 282.3800 1.6300
127.9900 303.5400 6.8400
131.3500 303.5400 6.8400
144.3100 303.5500 6.8400
157.6900 303.5400 6.8400
177.1500 282.4000 1.6300
147.3600 282.4100 1.6300
147.6500 282.4100 1.6300
176.8500 282.4100 1.6300
180.0400 282.4100 1.6300
170.7100 303.5600 6.8400
138.1300 282.4200 1.6300
150.8300 282.4200 1.6300
180.3500 282.4300 1.6300
144.7100 303.5800 6.8400
157.2800 303.5800 6.8400
134.3400 282.4300 1.6300
134.6400 282.4300 1.6300
137.8400 282.4300 1.6300
141.5000 288.8700 6.1500
170.2900 303.6100 6.8400
154.6300 282.4600 1.6300
173.2100 278.9800 8.8500
176.7200 278.9800 8.8600
154.3600 282.4700 1.6300
173.8600 278.9900 8.8600
180.2400 278.9900 8.8500
180.8600 278.9900 8.8500
141.3900 282.4900 1.6300
147.4100 282.5000 1.6300
147.6000 282.5000 1.6300
176.9000 282.5000 1.6300
177.0900 282.5000 1.6300
180.0900 282.5000 1.6300
134.3900 282.5200 1.6300
134.5800 282.5200 1.6300
138.0800 282.5200 1.6300
141.5800 282.5200 1.6300
180.2800 282.5200 1.6300
128.0800 297.2400 2.3200
151.0300 282.5300 1.6300
154.4700 282.5300 1.6300
125.0600 300.4700 4.5800
180.8300 279.0900 8.8600
128.1500 297.3300 2.3200
137.9400 282.6000 1.6300
138.0500 282.6200 1.6300
170.8900 302.1600 5.7100
157.8800 302.1700 5.7100
154.4400 289.0600 6.1500
131.8400 302.1800 5.7100
180.1200 289.0800 6.1500
144.8600 302.1900 5.7100
144.5400 302.2000 5.7100
131.4600 302.2100 5.7100
170.4500 302.2100 5.7100
170.5500 302.2100 5.7100
168.9500 279.1900 8.8500
157.4500 302.2200 5.7100
157.5600 302.2200 5.7100
131.5600 302.2300 5.7100
159.0000 279.2100 8.8500
144.4300 302.2400 5.7100
169.0500 279.2200 8.8600
137.9400 282.7100 1.6300
138.0500 282.7200 1.6300
144.6200 302.2700 5.7100
170.6400 302.2600 5.7100
159.1000 279.2400 8.8500
131.4900 303.8800 6.8400
154.4400 289.1600 6.1500
170.3700 302.2800 5.7100
168.8700 279.2700 8.8500
131.3900 303.8900 6.8400
180.0600 289.1700 6.1500
131.6700 302.3000 5.7100
157.3600 302.3000 5.7100
157.6500 302.3000 5.7100
169.1300 279.2800 8.8500
158.8500 279.3000 8.8600
131.2300 303.9300 6.8400
137.5000 282.8000 1.6300
150.9600 282.8000 1.6300
144.3600 302.3400 5.7100
159.1600 279.3300 8.8500
137.6000 282.8100 1.6300
170.6700 302.3600 5.7100
137.7200 282.8300 1.6300
138.0500 282.8200 1.6300
131.3400 302.3700 5.7100
144.7100 302.3700 5.7100
137.9400 282.8500 1.6300
176.6100 282.8600 1.6300
177.2400 282.8500 1.6300
177.4100 282.8600 1.6300
177.5700 282.8500 1.6300
168.8400 279.3700 8.8600
131.6600 302.4000 5.7100
169.1500 279.3800 8.8500
176.4500 282.8700 1.6300
176.7300 282.8700 1.6300
157.3500 302.4100 5.7100
158.8500 279.4000 8.8600
157.6500 302.4300 5.7100
137.4900 282.9000 1.6300
177.1500 282.9000 1.6300
147.3400 285.8600 13.3700
144.6500 302.4500 5.7100
170.3900 302.4500 5.7100
159.1400 279.4300 8.8500
138.0500 282.9200 1.6300
170.6300 302.4600 5.7100
134.4700 297.3800 11.8000
138.4300 282.9400 1.6300
147.3700 297.4000 11.8000
138.1900 282.9500 1.6300
138.3000 282.9500 1.6300
131.5900 302.4900 5.7100
177.5600 282.9500 1.6300
157.8800 302.4900 5.7100
170.8800 302.4900 5.7100
168.8800 279.4700 8.8500
147.5600 297.4100 11.8000
157.4200 302.5000 5.7100
158.9100 279.4800 8.8500
169.1000 279.4800 8.8500
131.8700 302.5200 5.7100
176.4500 282.9700 1.6300
183.4500 286.2000 3.8900
183.5500 286.2000 3.8900
144.5400 286.2000 3.8900
137.9400 282.9900 1.6300
144.4400 302.5300 5.7100
159.0300 279.5100 8.8500
168.9700 279.5200 8.8600
131.4300 286.2100 3.8900
137.4900 283.0000 1.6300
177.1800 283.0000 1.6300
144.8500 302.5400 5.7100
131.5300 286.2200 3.8900
144.4300 286.2200 3.8900
138.0400 283.0200 1.6300
138.5000 283.0200 1.6300
173.8100 279.5500 8.8600
176.7000 279.5500 8.8500
177.3600 279.5400 8.8500
180.1800 279.5500 8.8500
180.8100 279.5500 8.8600
183.3700 286.2700 3.8900
183.6400 286.2700 3.8900
144.6100 286.2800 3.8900
176.4500 283.0800 1.6300
177.5600 283.0800 1.6300
131.3500 286.3000 3.8900
131.6000 286.3000 3.8900
144.3500 286.3000 3.8900
147.3800 286.0300 13.3700
147.5600 286.0300 13.3700
137.4900 283.1000 1.6300
177.1100 283.1100 1.6300
138.5000 283.1200 1.6300
180.8200 279.6500 8.8600
183.3500 286.3700 3.8900
144.6400 286.3800 3.8900
147.3300 286.1200 13.3700
176.4400 283.1800 1.6300
177.5600 283.1800 1.6300
131.3400 286.4000 3.8900
131.6400 286.4000 3.8900
147.5200 286.1300 13.3700
177.1700 283.1900 1.6300
144.3400 286.4200 3.8900
137.4900 283.2100 1.6300
131.5200 291.2400 7.2800
183.4800 291.2400 7.2800
138.5000 283.2200 1.6300
144.4700 291.2500 7.2800
160.9800 302.7700 5.7100
173.9800 302.7600 5.7100
183.5800 291.2700 7.2800
183.4000 286.4600 3.8900
144.5700 291.2800 7.2800
128.4800 291.3000 7.2800
144.6000 286.4800 3.8900
147.3800 286.2100 13.3700
183.6000 286.4800 3.8900
131.3900 286.4900 3.8900
131.5800 286.4900 3.8900
176.4400 283.2800 1.6300
131.4300 291.3100 7.2800
147.5200 286.2300 13.3700
183.5000 286.5000 3.8900
177.1900 283.2900 1.6300
177.3100 283.3000 1.6300
177.5500 283.3000 1.6300
131.5900 291.3200 7.2800
144.4000 286.5100 3.8900
176.5400 283.3100 1.6300
176.6500 283.3100 1.6300
176.7600 283.3100 1.6300
144.5000 286.5300 3.8900
150.8700 286.2700 13.3700
144.3800 291.3600 7.2800
173.9700 302.8700 5.7100
137.9400 283.3600 1.6300
124.9900 289.8000 6.1500
138.0500 283.3700 1.6300
183.6000 291.4000 7.2800
147.3400 286.3300 13.3700
147.5700 286.3200 13.3700
131.6000 291.4200 7.2800
183.4600 278.3100 7.7200
131.4100 278.3300 7.7200
131.5100 278.3200 7.7200
144.4400 278.3300 7.7200
144.5500 278.3300 7.7200
157.4400 278.3300 7.7200
170.4500 278.3300 7.7200
170.5500 278.3200 7.7200
183.5700 278.3200 7.7200
154.3600 286.3500 13.3700
183.5100 291.4500 7.2800
183.4900 279.9500 8.8600
157.5400 278.3500 7.7200
170.6400 278.3700 7.7200
137.9300 283.4600 1.6300
131.4300 279.9800 8.8600
157.5400 279.9800 8.8500
170.4000 279.9800 8.8600
170.5000 279.9800 8.8600
183.5900 279.9800 8.8500
131.6000 278.3800 7.7200
183.3800 278.3800 7.7200
138.0500 283.4700 1.6300
131.5400 279.9900 8.8500
144.4500 279.9900 8.8600
144.5500 279.9900 8.8600
157.4300 279.9900 8.8500
125.0000 289.9000 6.1500
144.6300 278.4000 7.7200
157.3600 278.4000 7.7200
183.6500 278.4000 7.7200
170.6000 280.0100 8.8600
183.4000 280.0200 8.8600
131.3300 278.4100 7.7200
144.4400 298.2200 2.3200
144.5500 298.2200 2.3200
157.4500 298.2200 2.3200
157.5500 298.2200 2.3200
170.3700 278.4100 7.7200
150.8500 286.4400 13.3700
131.4400 298.2300 2.3200
131.5500 298.2300 2.3200
157.6200 278.4200 7.7200
134.4900 285.1200 2.7600
134.7000 285.1200 2.7600
141.3000 285.1200 2.7700
144.3500 278.4300 7.7200
131.3500 280.0500 8.8600
154.5600 286.4700 13.3700
179.9500 303.0800 5.7100
134.2800 285.1400 2.7600
137.9900 285.1400 2.7600
138.1900 285.1400 2.7600
141.5100 285.1400 2.7600
131.6200 280.0600 8.8600
125.0400 299.8700 3.4500
144.3700 280.0600 8.8600
144.6300 280.0600 8.8500
157.3400 280.0600 8.8500
157.6100 280.0600 8.8500
183.6600 280.0600 8.8500
141.7300 285.1500 2.7600
150.8900 285.1500 2.7600
180.1900 285.1500 2.7600
170.3500 280.0800 8.8500
170.6800 280.0700 8.8500
137.8200 285.1600 2.7600
151.1000 285.1600 2.7600
176.9600 285.1600 2.7600
144.3500 298.2800 2.3200
170.6700 278.4700 7.7200
177.0600 285.1700 2.7600
144.6300 298.2900 2.3200
157.3600 298.3000 2.3200
157.6300 298.3000 2.3200
183.3500 278.4800 7.7200
137.9400 283.5700 1.6300
138.0500 283.5700 1.6300
131.6300 278.4900 7.7200
128.0000 303.1200 5.7100
131.6300 298.3100 2.3200
157.3300 278.5000 7.7200
183.6600 278.5000 7.7200
150.9000 286.5300 13.3700
151.0100 286.5300 13.3700
134.4300 285.2000 2.7600
134.6200 285.2000 2.7600
141.3600 285.2000 2.7600
131.3300 278.5100 7.7200
144.6500 278.5100 7.7200
157.6300 278.5200 7.7200
170.3700 278.5200 7.7200
183.3700 298.3200 2.3200
183.3700 280.1200 8.8600
147.3300 285.2100 2.7600
147.4800 285.2100 2.7600
180.2900 285.2100 2.7600
141.5800 285.2200 2.7600
138.1100 285.2300 2.7600
150.8200 285.2300 2.7700
150.9600 285.2300 2.7600
151.1800 285.2300 2.7600
144.3500 278.5400 7.7200
154.5600 286.5700 13.3700
131.3200 280.1500 8.8600
125.0900 299.9600 3.4500
131.6300 280.1600 8.8600
144.6500 280.1600 8.8600
157.3300 280.1600 8.8600
157.6300 280.1600 8.8600
183.6700 280.1600 8.8600
147.6300 285.2500 2.7600
177.1300 285.2500 2.7600
154.3500 286.5900 13.3700
124.9600 299.9800 3.4500
144.3500 280.1700 8.8600
170.6600 280.1700 8.8500
134.3500 285.2700 2.7600
131.5800 278.5800 7.7200
170.6200 278.5800 7.7200
183.4000 278.5700 7.7200
150.8300 286.6100 13.3700
151.0900 286.6000 13.3700
170.3600 280.1800 8.8500
144.6500 298.3900 2.3200
137.9300 283.6700 1.6300
138.0500 283.6700 1.6300
128.0600 303.2100 5.7100
157.6600 298.4000 2.3200
183.5900 278.5900 7.7200
134.6300 285.3000 2.7600
137.8400 285.3000 2.7600
141.6600 285.3000 2.7600
147.3800 285.3000 2.7600
131.6400 298.4100 2.3200
144.5900 278.6100 7.7200
157.3700 278.6100 7.7200
157.5800 278.6100 7.7200
157.3500 298.4100 2.3200
170.4300 278.6100 7.7200
150.9900 286.6300 13.3700
183.3700 298.4200 2.3200
183.3900 280.2200 8.8600
180.0600 285.3100 2.7600
180.3200 285.3100 2.7600
183.4900 278.6200 7.7200
167.0100 303.2500 5.7100
138.1800 285.3300 2.7600
141.3600 285.3200 2.7600
150.8500 285.3300 2.7600
170.5300 278.6300 7.7200
131.3700 280.2400 8.8600
183.8600 290.1500 6.1500
154.4100 286.6700 13.3700
154.5500 286.6700 13.3700
131.5800 280.2500 8.8500
157.3800 280.2500 8.8500
183.6000 280.2500 8.8600
144.4000 280.2700 8.8500
144.5800 280.2700 8.8600
173.9600 303.2800 5.7100
157.5700 280.2700 8.8600
170.4200 280.2600 8.8600
170.5800 280.2700 8.8600
134.2700 285.3500 2.7600
176.9100 285.3600 2.7600
131.8700 290.1700 6.1500
144.8800 290.1800 6.1500
150.9000 286.6900 13.3700
161.0700 303.3000 5.7100
144.6000 298.4800 2.3200
183.4800 280.2800 8.8500
144.4500 290.1900 6.1500
157.6000 298.4900 2.3200
183.5300 290.1900 6.1500
151.1000 286.7100 13.3700
157.4700 280.3000 8.8600
177.0900 285.3800 2.7600
131.5800 298.5000 2.3200
138.0400 283.7800 1.6300
131.5400 290.2100 6.1500
144.5500 290.2100 6.1500
137.9300 283.8000 1.6300
134.6400 285.4000 2.7600
141.6600 285.4000 2.7600
180.2700 285.4000 2.7600
144.4400 298.5300 2.3200
157.4600 298.5300 2.3200
154.3400 286.7500 13.3700
166.9600 303.3500 5.7100
138.1300 285.4200 2.7600
141.3600 285.4200 2.7600
147.6900 285.4200 2.7600
180.1200 285.4200 2.7600
134.3600 285.4300 2.7600
151.1500 285.4300 2.7600
147.3500 285.4400 2.7600
150.8400 285.4400 2.7600
144.3700 290.2700 6.1500
154.5400 286.7800 13.3700
151.0400 286.8000 13.3700
183.1600 288.6700 5.0200
137.8900 285.4700 2.7600
131.6400 290.2900 6.1500
138.0500 283.8800 1.6300
167.0400 303.4200 5.7100
131.2000 288.7000 5.0200
134.5700 285.4900 2.7600
147.5100 285.4900 2.7600
138.0000 285.5000 2.7600
141.4600 285.5000 2.7600
141.5700 285.5000 2.7600
147.6100 285.5000 2.7600
137.9300 283.9000 1.6300
134.3000 285.5100 2.7600
134.4700 285.5100 2.7600
134.6700 285.5200 2.7600
138.1700 285.5200 2.7600
141.3100 285.5200 2.7600
141.6800 285.5100 2.7600
150.9300 285.5100 2.7600
151.0500 285.5200 2.7600
141.4700 286.8500 13.3700
144.6500 290.3400 6.1500
154.6000 286.8700 13.3700
137.8000 285.5500 2.7600
147.3200 285.5500 2.7600
150.8200 285.5500 2.7600
179.9700 303.4800 5.7100
131.3400 290.3700 6.1500
124.9900 300.2800 3.4500
147.4300 285.5600 2.7600
127.9900 303.5000 5.7100
125.0900 300.2900 3.4500
151.1400 285.5800 2.7700
166.9900 303.5200 5.7100
138.0500 283.9800 1.6300
151.0900 286.9300 13.3700
141.5100 286.9500 13.3700
137.9300 284.0100 1.6300
124.8800 300.3500 3.4500
128.0800 303.5700 5.7100
179.9800 303.5800 5.7100
131.6600 280.5600 8.8600
170.6700 280.5600 8.8600
131.3000 280.5800 8.8600
157.2900 280.5800 8.8500
125.1000 300.3900 3.4500
157.6400 280.5900 8.8600
183.8600 290.5000 6.1500
131.8700 290.5200 6.1500
138.0500 284.0900 1.6300
141.5200 287.0500 13.3700
128.0600 297.2200 1.1900
137.9300 284.1200 1.6300
137.9700 287.0900 13.3700
128.1500 297.3000 1.1900
166.9500 303.7200 5.7100
138.0500 284.1900 1.6300
134.4500 287.1600 13.3700
137.9300 284.2200 1.6300
138.0100 287.1900 13.3700
141.5100 287.1900 13.3700
138.0500 284.3000 1.6300
128.1500 297.4100 1.1900
159.1900 279.2100 7.7200
159.3000 279.2100 7.7200
180.5400 276.9400 1.2800
168.6800 279.2200 7.7200
168.7800 279.2200 7.7200
173.9400 303.8500 5.7100
157.4200 302.2500 4.5800
134.4600 287.2600 13.3700
137.9300 284.3200 1.6300
176.9600 279.2400 7.7200
177.0700 279.2400 7.7200
161.0100 303.8700 5.7100
180.6600 276.9800 1.2800
180.5200 279.2500 7.7200
170.3900 302.2800 4.5800
159.3900 279.2700 7.7200
168.8700 279.2700 7.7200
173.4400 279.2700 7.7200
173.5500 279.2700 7.7200
137.9700 287.3000 13.3700
166.8900 307.1100 7.9700
131.1400 300.6900 3.4500
159.1000 279.3000 7.7200
168.6000 279.3000 7.7200
128.0900 297.5000 1.1900
166.9900 307.1400 7.9700
127.9800 297.5200 1.1900
138.0500 284.4000 1.6300
176.9300 307.1500 7.9700
177.0300 307.1500 7.9700
174.0000 303.9400 5.7100
180.4400 279.3200 7.7200
134.5100 287.3500 13.3700
167.1200 307.1600 7.9700
173.9500 307.1600 7.9700
180.0400 307.1600 7.9700
137.9300 284.4200 1.6300
174.1100 307.1700 7.9700
179.8700 307.1700 7.9700
176.9500 279.3400 7.7200
177.0800 279.3400 7.7200
180.5700 279.3400 7.7200
164.0700 307.1800 7.9700
166.8100 307.1800 7.9700
160.9800 303.9700 5.7100
160.9000 307.1900 7.9700
173.8500 307.1900 7.9700
161.0200 307.2000 7.9700
163.9600 307.2000 7.9700
177.1300 307.2000 7.9700
159.4100 279.3700 7.7200
168.9000 279.3700 7.7200
173.4300 279.3700 7.7200
173.5300 279.3700 7.7200
138.0100 287.4000 13.3700
180.1300 307.2100 7.9700
163.8300 307.2200 7.9700
176.8300 307.2200 7.9700
159.1000 279.4000 7.7200
168.5900 279.4000 7.7200
138.0500 284.5000 1.6300
161.1100 307.2500 7.9700
173.9700 304.0400 5.7100
134.5100 287.4500 13.3700
164.1300 307.2600 7.9700
167.1300 307.2700 7.9700
161.0300 304.0600 5.7100
137.9300 284.5300 1.6300
160.8500 307.2800 7.9700
174.1000 307.2800 7.9700
179.8500 307.2800 7.9700
166.8100 307.3000 7.9700
173.7800 307.3000 7.9700
134.4600 297.3900 10.6700
168.8600 279.4700 7.7200
177.1400 307.3100 7.9700
180.1700 307.3100 7.9700
138.0100 287.5100 13.3700
163.7900 307.3300 7.9700
176.8000 307.3300 7.9700
170.5500 302.5100 4.5800
159.1600 279.4900 7.7200
159.3500 279.4900 7.7200
183.4500 286.2000 2.7600
183.5500 286.2000 2.7600
168.6600 279.5000 7.7200
147.4200 297.4400 10.6700
144.5400 302.5300 4.5800
138.0500 284.6100 1.6300
160.7600 307.3600 7.9700
161.1400 307.3600 7.9700
164.1700 307.3600 7.9700
173.9600 304.1400 5.7100
131.5600 286.2100 2.7600
147.5900 297.4500 10.6700
160.9800 304.1500 5.7100
131.4300 286.2200 2.7600
144.4400 286.2200 2.7600
144.5500 286.2200 2.7600
137.9300 284.6300 1.6300
167.1300 307.3800 7.9700
174.1200 307.3800 7.9700
179.8100 307.3800 7.9700
166.8400 307.4000 7.9700
173.7500 307.4000 7.9700
183.3700 286.2700 2.7600
183.6300 286.2700 2.7600
177.1200 307.4100 7.9700
180.1700 307.4100 7.9700
176.8300 307.4300 7.9700
144.3600 286.2900 2.7600
173.9400 304.2400 5.7100
164.0200 307.5100 7.9700
166.9800 307.5100 7.9700
180.1400 307.5100 7.9700
180.4900 287.7200 13.3700
179.9900 307.5300 7.9700
180.4900 287.8200 13.3700
183.5500 286.5000 2.7600
144.4200 286.5200 2.7600
144.5800 286.5100 2.7600
183.6200 278.2400 6.5900
180.5400 287.9100 13.3700
125.0500 307.8000 7.9700
128.1300 302.9800 4.5800
180.4900 288.0000 13.3700
162.8300 279.3300 2.4200
138.0900 276.8400 5.4600
141.1600 276.8600 5.4600
134.9000 276.8800 5.4600
134.9500 276.9800 5.4600
183.6600 290.1300 5.0200
144.6600 290.1400 5.0200
131.6300 280.2400 7.7200
183.8700 290.1500 5.0200
131.7700 290.1600 5.0200
131.8800 290.1700 5.0200
144.3800 298.4800 1.1900
183.4400 290.1800 5.0200
147.6500 285.3700 1.6300
131.5100 290.1900 5.0200
183.5400 290.1900 5.0200
144.4400 290.2100 5.0200
131.5700 298.5100 1.1900
128.0100 308.1500 7.9700
131.4100 290.2200 5.0200
144.5900 290.2300 5.0200
144.5200 298.5300 1.1900
183.6400 290.2300 5.0200
127.9000 303.3600 4.5800
144.7100 290.2400 5.0200
176.9800 285.4300 1.6300
131.6500 290.2500 5.0200
183.3600 290.2500 5.0200
151.1100 285.4700 1.6300
131.3300 290.3000 5.0200
144.3600 290.2900 5.0200
161.1000 303.4300 4.5800
128.0200 308.2600 7.9700
147.5800 285.5200 1.6300
157.2700 280.4400 7.7200
131.6500 290.3500 5.0200
183.3400 290.3600 5.0200
170.3100 280.4800 7.7200
125.0200 308.3200 7.9700
131.3000 280.4900 7.7200
170.7100 280.4900 7.7200
131.3400 290.4000 5.0200
144.3500 290.4000 5.0200
183.6500 290.4000 5.0200
131.6800 280.5000 7.7200
157.2700 280.5400 7.7200
183.3900 290.4500 5.0200
131.6500 290.4600 5.0200
124.8500 300.3800 2.3200
183.5700 290.4800 5.0200
131.3900 290.4900 5.0200
183.7500 290.4900 5.0200
131.3000 280.5900 7.7200
157.6700 280.5900 7.7200
170.3100 280.5900 7.7200
170.7200 280.5900 7.7200
131.6900 280.6000 7.7200
131.8900 290.5200 5.0200
144.8600 290.5200 5.0200
183.8500 290.5100 5.0200
131.7300 290.5400 5.0200
157.2700 280.6400 7.7200
170.7800 302.2200 3.4500
176.9700 307.1200 6.8400
151.1200 277.6900 5.4600
179.9100 307.1400 6.8400
124.9800 307.1500 6.8400
180.0900 307.1500 6.8400
177.0800 279.3300 6.5900
160.9400 307.1600 6.8400
147.3100 277.7400 5.4600
157.6300 297.2800 9.5400
180.4900 279.3600 6.5900
127.9000 307.1900 6.8400
183.1700 297.3100 9.5400
144.8200 297.3300 9.5400
183.0700 297.3200 9.5400
183.3300 297.3300 9.5400
151.1000 277.8000 5.4600
131.0000 297.3400 9.5400
157.3000 297.3400 9.5400
157.7800 297.3400 9.5400
144.9600 297.3500 9.5400
131.3900 297.3700 9.5400
144.1200 297.3700 9.5400
144.3400 297.3700 9.5400
157.1400 297.3700 9.5400
128.2100 307.2800 6.8400
177.0200 300.5900 11.8000
144.0100 297.3800 9.5400
144.6900 297.3800 9.5400
157.9100 297.3800 9.5400
179.7400 307.2900 6.8400
161.2300 307.3100 6.8400
173.4900 277.8700 5.4600
183.1200 297.4100 9.5400
182.9900 297.4200 9.5400
157.4900 302.5200 3.4500
151.1000 277.9000 5.4600
144.5400 302.5300 3.4500
173.7500 307.3600 6.8400
157.3600 297.4500 9.5400
170.8400 302.5400 3.4500
157.6400 297.4600 9.5400
124.7500 307.3700 6.8400
128.2400 307.3900 6.8400
141.5500 277.9500 5.4600
173.4400 277.9600 5.4600
147.3100 277.9700 5.4600
180.4800 277.9700 5.4600
134.5600 278.0000 5.4600
151.1000 278.0000 5.4600
177.0100 278.0200 5.4600
163.9500 305.8700 5.7100
173.4900 278.0500 5.4600
174.0100 305.8900 5.7100
176.9800 305.8900 5.7100
141.5500 278.0600 5.4600
134.4800 278.0800 5.4600
141.6600 278.0800 5.4600
180.4500 278.0800 5.4600
177.1200 307.5500 6.8400
134.5800 278.1100 5.4600
137.8600 278.1000 5.4600
151.1100 278.1000 5.4600
177.0600 278.1100 5.4600
166.9900 307.5600 6.8400
161.1500 307.5800 6.8400
173.9600 305.9800 5.7100
164.1800 307.5900 6.8400
180.0200 307.5900 6.8400
173.4600 278.1500 5.4600
180.5200 278.1600 5.4600
128.5300 291.2800 5.0200
124.9100 291.2900 5.0200
125.0200 291.2900 5.0200
180.2400 291.2900 5.0200
177.0100 278.2000 5.4600
160.9500 306.0400 5.7100
183.4600 286.5100 1.6300
137.9700 278.2200 5.4600
180.1500 291.3400 5.0200
173.9800 306.0800 5.7100
179.9700 306.0800 5.7100
180.4400 278.2400 5.4600
128.4100 291.3700 5.0200
180.3100 291.3700 5.0200
134.5600 278.2700 5.4600
128.5900 291.3800 5.0200
124.8900 291.4000 5.0200
138.0400 278.3000 5.4600
177.0700 278.3000 5.4600
160.9500 306.1400 5.7100
173.5100 278.3100 5.4600
180.5200 278.3100 5.4600
157.6200 278.3300 5.4600
180.1500 291.4400 5.0200
173.9700 306.1800 5.7100
179.9500 306.1800 5.7100
180.2600 291.4600 5.0200
166.9600 306.1900 5.7100
128.5600 291.4800 5.0200
167.0800 302.9900 3.4500
170.5400 278.3700 5.4600
177.0000 278.3800 5.4600
180.4500 278.3900 5.4600
161.0000 306.2300 5.7100
180.0300 303.0500 3.4500
180.0000 306.2700 5.7100
141.4400 278.4500 5.4600
166.9200 306.3000 5.7100
177.0700 278.4600 5.4600
180.5300 278.4600 5.4600
173.5500 278.5200 5.4600
176.9500 278.5200 5.4600
124.8400 299.9300 1.1900
173.3600 278.5500 5.4600
176.8500 278.5500 5.4600
177.1300 278.5400 5.4600
180.3400 278.5500 5.4600
180.5800 278.5500 5.4600
137.9300 278.5600 5.4600
173.4600 278.5700 5.4600
173.6400 278.5800 5.4600
173.8900 303.2400 3.4600
174.0200 303.2300 3.4600
161.1000 303.2400 3.4500
177.2000 278.6200 5.4600
180.6600 278.6200 5.4600
174.1800 303.2500 3.4500
173.3200 278.6500 5.4600
180.3100 278.6500 5.4600
124.9400 300.0700 1.1900
125.0700 300.0700 1.1900
173.6700 278.6800 5.4600
167.1300 303.3100 3.4500
127.9800 306.5300 5.7100
174.0200 303.3300 3.4500
173.9100 303.3400 3.4500
137.9500 278.7200 5.4600
141.5100 278.7200 5.4600
161.1000 303.3600 3.4500
180.1200 303.3500 3.4600
177.1900 278.7300 5.4600
131.6300 280.3500 6.5900
144.8900 290.2700 3.8900
173.2800 278.7500 5.4600
180.3000 278.7500 5.4600
124.9600 306.6200 5.7100
173.6800 278.7900 5.4600
127.9700 306.6300 5.7100
173.8700 303.4500 3.4500
160.9000 303.4600 3.4500
161.1200 303.4600 3.4500
174.1400 303.4600 3.4500
144.3500 290.3500 3.8900
161.0000 303.4700 3.4500
173.9700 303.4700 3.4500
180.0300 303.4700 3.4500
180.6800 278.8600 5.4600
128.0200 303.4800 3.4500
144.8700 290.3700 3.8900
173.2900 278.8700 5.4600
124.8500 300.3000 1.1900
177.0400 278.8800 5.4600
128.0400 306.7300 5.7100
170.4700 280.5300 6.5900
183.5000 280.5300 6.5900
144.6900 290.4500 3.8900
180.6300 278.9900 5.4600
173.2900 279.0000 5.4600
180.3100 279.0000 5.4600
124.9600 306.9000 5.7100
173.6800 279.0700 5.4600
125.0600 306.9400 5.7100
128.0900 306.9500 5.7100
180.6600 279.1200 5.4600
127.9300 306.9800 5.7100
176.8500 279.1500 5.4600
177.2300 279.1500 5.4600
173.2900 279.1700 5.4600
180.3300 279.2000 5.4600
150.9500 300.3500 10.6700
183.8500 278.9400 14.9400
131.7800 278.9500 14.9400
144.1300 278.9600 14.9400
144.7900 278.9600 14.9400
170.8100 278.9600 14.9400
131.6000 302.2700 2.3200
173.6900 279.2400 5.4600
146.2700 278.9700 14.9400
149.0000 278.9700 14.9400
138.0500 278.9800 14.9400
147.3500 278.9800 14.9400
152.3600 278.9800 14.9400
157.1000 278.9800 14.9400
176.1300 278.9800 14.9400
178.3200 278.9800 14.9400
135.9900 278.9900 14.9400
142.4600 278.9900 14.9400
152.8700 278.9900 14.9400
153.4700 278.9900 14.9400
154.5400 278.9900 14.9400
160.9700 307.1100 5.7100
170.7400 302.3000 2.3200
137.6200 279.0000 14.9400
138.5400 279.0000 14.9400
138.7300 279.0000 14.9400
139.9900 279.0000 14.9400
147.1000 279.0000 14.9400
148.6900 279.0000 14.9400
150.1900 279.0000 14.9400
138.0300 300.4300 10.6700
164.0100 307.1300 5.7100
166.9400 307.1300 5.7100
176.9700 307.1300 5.7100
141.6600 279.0300 14.9400
127.9400 307.1400 5.7100
174.9700 279.0300 14.9400
175.9700 279.0300 14.9400
154.5000 279.3100 5.4600
174.4000 279.0500 14.9400
167.0400 307.1500 5.7100
173.8800 307.1500 5.7100
174.0100 307.1500 5.7100
147.4700 279.3200 5.4600
154.3800 279.3200 5.4600
176.8300 279.3300 5.4600
179.9400 307.1600 5.7100
148.3400 279.0600 14.9400
149.1100 279.0600 14.9400
125.0500 307.1700 5.7100
161.0600 307.1700 5.7100
147.4500 277.4600 13.8100
149.6200 279.0700 14.9400
151.7100 279.0800 14.9400
163.8900 307.1800 5.7100
164.1100 307.1800 5.7100
157.4900 297.2800 8.4100
157.6900 302.3700 2.3200
180.6800 279.3600 5.4600
180.1000 307.1900 5.7100
148.9300 279.0900 14.9400
185.2500 279.0900 14.9400
176.8800 307.2000 5.7100
140.0400 279.1100 14.9400
150.2200 279.1100 14.9400
153.1300 279.1000 14.9400
175.4300 279.1000 14.9400
160.8400 307.2100 5.7100
173.2900 279.3800 5.4600
180.4600 279.3800 5.4600
124.8700 307.2200 5.7100
125.1400 307.2200 5.7100
177.1700 279.3900 5.4600
150.3500 279.1200 14.9400
185.1100 279.1200 14.9400
138.5900 279.1400 14.9400
155.8700 279.1400 14.9400
175.3200 279.1400 14.9400
178.2600 279.1400 14.9400
184.0200 279.1400 14.9400
161.1300 307.2500 5.7100
177.1400 307.2500 5.7100
157.5900 297.3500 8.4100
137.1800 279.1500 14.9400
151.5700 279.1500 14.9400
151.8300 279.1500 14.9400
152.9800 279.1500 14.9400
167.1400 307.2600 5.7100
174.1400 307.2700 5.7100
135.7800 279.1600 14.9400
141.3700 279.1600 14.9400
142.6700 279.1600 14.9400
146.0800 279.1600 14.9400
175.5800 279.1600 14.9400
178.6100 279.1600 14.9400
140.1900 279.1700 14.9400
176.8400 279.4400 5.4600
148.7600 279.1700 14.9400
149.0000 279.1700 14.9400
173.0700 279.1700 14.9400
174.0400 279.1700 14.9400
175.8600 279.1700 14.9400
176.8400 279.1700 14.9400
166.8100 307.2800 5.7100
179.8200 307.2800 5.7100
142.9300 279.1800 14.9400
153.2000 279.1800 14.9400
174.4400 279.1800 14.9400
182.2700 279.1800 14.9400
185.3200 279.1800 14.9400
144.4100 297.3900 8.4100
180.3300 279.4600 5.4600
180.6800 279.4600 5.4600
180.0500 279.1900 14.9400
181.4000 279.1900 14.9400
157.5900 302.4900 2.3200
154.4100 279.4700 5.4600
138.8400 279.2000 14.9400
143.9700 279.2000 14.9400
173.6800 279.4700 5.4600
141.6600 279.2100 14.9400
173.3000 279.4800 5.4600
175.6800 279.2100 14.9400
163.8200 307.3300 5.7100
176.8200 307.3200 5.7100
139.4000 279.2200 14.9400
152.3300 279.2200 14.9400
155.9400 279.2200 14.9400
178.1800 279.2200 14.9400
183.5000 297.4300 8.4100
146.3400 279.2300 14.9400
173.7900 307.3400 5.7100
180.1700 307.3400 5.7100
131.4800 302.5300 2.3200
144.5400 302.5300 2.3200
159.8000 279.5100 5.4600
147.3100 279.2400 14.9400
150.1000 279.2400 14.9400
161.1500 307.3500 5.7100
170.8700 302.5400 2.3200
151.4400 279.2500 14.9400
173.1400 279.2500 14.9400
175.9400 279.2500 14.9400
176.7600 279.2500 14.9400
177.3000 279.2500 14.9400
138.9200 279.2700 14.9400
140.3300 279.2600 14.9400
142.6000 279.2600 14.9400
143.0000 279.2700 14.9400
145.0200 279.2700 14.9400
145.9800 279.2600 14.9400
153.2700 279.2600 14.9400
154.6200 279.2600 14.9400
155.6200 279.2600 14.9400
175.3100 279.2600 14.9400
180.9700 279.2600 14.9400
160.8000 307.3700 5.7100
166.8000 307.3800 5.7100
167.1600 307.3800 5.7100
157.8500 302.5700 2.3200
136.1200 279.2800 14.9400
133.3700 279.3000 14.9400
139.8800 279.3000 14.9400
176.8300 279.5600 5.4600
177.1800 279.5600 5.4600
149.1000 279.2900 14.9400
150.4900 279.3000 14.9400
180.3300 279.5600 5.4600
151.9200 279.3000 14.9400
152.4200 279.3000 14.9400
152.8300 279.3000 14.9400
173.9300 279.2900 14.9400
178.7500 279.3000 14.9400
180.1400 279.2900 14.9400
185.4100 279.3000 14.9400
164.1700 307.4000 5.7100
174.1500 307.4000 5.7100
177.1600 307.4000 5.7100
173.3200 279.5800 5.4600
173.6500 279.5800 5.4600
180.6800 279.5800 5.4600
135.6900 279.3100 14.9400
141.7100 279.3100 14.9400
184.1400 279.3100 14.9400
179.8200 307.4200 5.7100
132.1300 279.3300 14.9400
137.0200 279.3300 14.9400
139.4200 279.3200 14.9400
147.7300 279.3200 14.9400
154.7100 279.3200 14.9400
175.5700 279.3200 14.9400
177.3700 279.3300 14.9400
184.9300 279.3200 14.9400
145.9100 279.3400 14.9400
146.3900 279.3400 14.9400
147.2300 279.3400 14.9400
176.0000 279.3400 14.9400
141.5400 279.6200 5.4600
132.9100 279.3600 14.9400
138.4100 279.3500 14.9400
140.3800 279.3600 14.9400
141.1900 279.3600 14.9400
142.5300 279.3600 14.9400
149.9900 279.3600 14.9400
150.6300 279.3600 14.9400
153.3300 279.3500 14.9400
175.2300 279.3600 14.9400
176.9300 307.4600 5.7100
167.1100 307.4700 5.7100
173.8300 307.4700 5.7100
180.1400 307.4700 5.7100
149.1900 279.3700 14.9400
180.2100 279.3700 14.9400
161.1300 307.4800 5.7100
180.2300 292.7700 5.0200
135.5800 279.3800 14.9400
151.3600 279.3800 14.9400
174.6100 279.3800 14.9400
178.8100 279.3800 14.9400
160.8300 307.4900 5.7100
163.8500 307.4900 5.7100
125.1200 307.5000 5.7100
184.2000 279.3900 14.9400
164.1400 307.5000 5.7100
174.0900 307.5000 5.7100
125.0200 292.7800 5.0200
134.2000 279.4000 14.9400
147.8000 279.4000 14.9400
177.1800 279.6700 5.4600
173.8200 279.4000 14.9400
178.0100 279.4000 14.9400
166.9100 307.5100 5.7100
167.0100 307.5200 5.7100
128.4400 292.8000 5.0200
128.5500 292.7900 5.0200
173.3200 279.6800 5.4600
173.6700 279.6800 5.4600
176.8300 279.6800 5.4600
176.9500 279.6800 5.4600
148.5500 279.4100 14.9400
180.3300 279.6800 5.4600
180.4400 279.6800 5.4600
180.6100 279.6800 5.4600
156.1000 279.4100 14.9400
177.4400 279.4100 14.9400
179.4100 279.4100 14.9400
184.8500 279.4100 14.9400
138.9800 279.4200 14.9400
173.4800 279.6900 5.4600
145.8500 279.4200 14.9400
147.1600 279.4200 14.9400
152.3900 279.4200 14.9400
154.7900 279.4200 14.9400
176.0700 279.4200 14.9400
173.9200 307.5300 5.7100
136.9300 279.4300 14.9400
138.3300 279.4300 14.9400
143.8100 279.4300 14.9400
146.4700 279.4300 14.9400
176.6000 279.4300 14.9400
180.0700 307.5500 5.7100
180.1300 292.8300 5.0200
139.7800 279.4400 14.9400
140.4500 279.4400 14.9400
175.5800 279.4400 14.9400
134.5400 279.7200 5.4600
132.8400 279.4500 14.9400
141.1100 279.4500 14.9400
142.4500 279.4500 14.9400
151.9700 279.4500 14.9400
160.9200 307.5600 5.7100
161.0500 307.5600 5.7100
124.9300 292.8400 5.0200
173.5800 279.7300 5.4600
148.4600 279.4600 14.9400
150.6400 279.4600 14.9400
151.2500 279.4600 14.9400
175.1600 279.4600 14.9400
175.7000 279.4600 14.9400
178.8800 279.4600 14.9400
164.0600 307.5700 5.7100
180.2900 292.8600 5.0200
143.1700 279.4700 14.9400
149.2600 279.4700 14.9400
152.7000 279.4700 14.9400
145.2000 279.4800 14.9400
149.8500 279.4800 14.9400
185.5600 279.4800 14.9400
177.5100 279.4900 14.9400
177.9400 279.4900 14.9400
125.0800 292.8800 5.0200
145.7800 279.5000 14.9400
147.0900 279.5000 14.9400
137.9400 279.7800 5.4600
138.2500 279.5200 14.9400
139.3900 279.5200 14.9400
139.7000 279.5200 14.9400
140.5300 279.5100 14.9400
146.5400 279.5200 14.9400
152.0700 279.5200 14.9400
154.8300 279.5200 14.9400
176.5500 279.5200 14.9400
128.4100 292.9000 5.0200
173.4600 279.7900 5.4600
132.7600 279.5300 14.9400
151.1700 279.5300 14.9400
174.7700 279.5300 14.9400
160.1100 310.1900 2.6700
128.5700 291.3300 3.8900
134.9700 279.5400 14.9400
135.4300 279.5400 14.9400
137.7500 279.5400 14.9400
142.3800 279.5500 14.9400
143.7200 279.5500 14.9400
148.3800 279.5500 14.9400
149.3300 279.5500 14.9400
150.7000 279.5400 14.9400
152.3300 279.5500 14.9400
154.0000 279.5400 14.9400
180.1800 292.9400 5.0200
143.2400 279.5600 14.9400
145.2700 279.5600 14.9400
147.0000 279.5600 14.9400
156.2300 279.5600 14.9400
133.6400 279.5800 14.9400
134.0700 279.5800 14.9400
139.1200 279.5800 14.9400
141.9300 279.5700 14.9400
152.6000 279.5800 14.9400
175.0600 279.5800 14.9400
141.4200 279.8500 5.4600
131.4800 278.2500 4.3300
140.6600 279.5900 14.9400
147.9600 279.5900 14.9400
175.5700 279.5900 14.9400
179.0000 279.5900 14.9400
157.4900 278.2700 4.3300
136.7800 279.6100 14.9400
140.9800 279.6100 14.9400
173.5300 279.8700 5.4600
146.6100 279.6000 14.9400
150.7800 279.6100 14.9400
152.1200 279.6100 14.9400
153.5700 279.6000 14.9400
155.3300 279.6000 14.9400
177.6100 279.6100 14.9400
177.9300 279.6100 14.9400
149.7200 279.6200 14.9400
180.5400 279.8900 5.4600
176.4300 279.6200 14.9400
151.1300 279.6300 14.9400
139.4100 279.6400 14.9400
149.4100 279.6400 14.9400
183.0500 279.6400 14.9400
174.8600 279.6500 14.9400
139.2700 279.6700 14.9400
176.5600 279.6700 14.9400
173.4600 279.9500 5.4600
146.9400 279.6800 14.9400
149.9500 279.6800 14.9400
125.0600 291.4700 3.8900
173.7400 303.7900 2.8800
151.8500 279.7000 14.9400
175.9800 279.7100 14.9400
134.5100 279.9900 5.4600
180.4800 279.9900 5.4600
138.8000 279.7300 14.9400
150.1100 279.7300 14.9400
150.5400 279.7300 14.9400
151.5200 279.7300 14.9400
173.5300 280.0300 5.4600
183.8800 279.7700 14.9400
184.0200 279.7700 14.9400
184.1500 279.7700 14.9400
184.6800 279.7700 14.9400
185.0700 279.7700 14.9400
185.3500 279.7700 14.9400
185.4700 279.7700 14.9400
132.3200 279.7800 14.9400
132.5500 279.7800 14.9400
132.8300 279.7800 14.9400
154.8300 279.7800 14.9400
155.1900 279.7800 14.9400
155.3100 279.7800 14.9400
156.0900 279.7800 14.9400
156.5000 279.7800 14.9400
156.6000 279.7800 14.9400
173.6200 279.7800 14.9400
174.6500 279.7800 14.9400
176.3800 279.7800 14.9400
181.7900 279.7800 14.9400
182.6800 279.7800 14.9400
137.9600 280.0600 5.4600
131.8200 279.8000 14.9400
132.6800 279.7900 14.9400
133.2500 279.7900 14.9400
133.8000 279.7900 14.9400
134.0000 279.7900 14.9400
134.2900 279.7900 14.9400
134.9600 279.7900 14.9400
135.0700 279.7900 14.9400
136.3200 279.8000 14.9400
136.5200 279.7900 14.9400
136.8700 279.7900 14.9400
138.0800 279.8000 14.9400
138.2400 279.8000 14.9400
140.5000 279.8000 14.9400
140.6800 279.8000 14.9400
140.7800 279.8000 14.9400
140.8800 279.8000 14.9400
141.6500 279.8000 14.9400
143.3600 279.7900 14.9400
143.6200 279.7900 14.9400
143.7900 279.7900 14.9400
145.3400 279.7900 14.9400
145.4800 279.7900 14.9400
147.9400 279.8000 14.9400
149.3700 279.8000 14.9400
151.7300 279.8000 14.9400
152.9100 279.7900 14.9400
153.5000 279.7900 14.9400
153.9500 279.7900 14.9400
177.0800 279.8000 14.9400
180.5400 280.0700 5.4600
154.4800 279.8200 14.9400
176.9600 280.1100 5.4600
173.4800 280.1200 5.4600
180.4800 280.1600 5.4600
170.3700 279.9100 14.9400
173.5300 280.2100 5.4600
176.9500 280.2100 5.4600
180.5300 280.2500 5.4600
151.0700 280.3000 5.4600
173.4700 280.3000 5.4600
131.4300 288.6000 1.6300
150.8700 280.3100 5.4600
176.9500 280.3100 5.4600
173.8500 303.3600 2.3200
137.9800 280.3400 5.4600
141.4600 280.3400 5.4600
180.4700 280.3400 5.4600
127.8600 303.3800 2.3200
131.1600 288.6700 1.6300
131.2900 288.6700 1.6300
183.1500 288.6700 1.6300
154.3900 280.3800 5.4600
183.3500 288.6800 1.6300
147.6200 280.4000 5.4600
150.8500 280.4200 5.4600
151.0500 280.4300 5.4600
138.0000 280.4400 5.4600
173.9100 303.4600 2.3200
154.5600 280.4400 5.4600
180.4500 280.4400 5.4600
128.1000 303.4800 2.3200
147.4700 280.4700 5.4600
173.8100 303.5100 2.3200
154.3700 280.4800 5.4600
180.0500 303.5200 2.3200
147.6200 280.5000 5.4600
134.6100 285.3200 8.8600
154.6100 280.5300 5.4600
131.6300 280.5500 5.4600
180.4300 280.5400 5.4600
173.4200 278.9600 4.3300
147.4700 280.5800 5.4600
173.5700 280.5700 5.4600
131.4500 288.8900 1.6300
144.4000 290.5000 2.7600
134.3900 280.6100 5.4600
137.9600 280.6000 5.4600
147.6300 280.6000 5.4600
144.5100 290.5200 2.7600
134.4600 279.0200 4.3300
183.4900 285.4400 8.8600
147.3600 285.4500 8.8600
144.8500 290.5500 2.7600
141.4300 280.6400 5.4600
180.4100 280.6600 5.4600
144.5700 285.4800 8.8600
131.4800 280.6700 5.4600
157.4600 280.6700 5.4600
173.6000 280.6700 5.4600
134.3800 280.7100 5.4600
157.6300 300.2500 9.5400
144.6900 300.2700 9.5400
144.0300 300.2800 9.5400
130.9600 300.3000 9.5400
157.7200 300.3000 9.5400
144.1800 300.3100 9.5400
157.1100 300.3300 9.5400
157.5000 300.3200 9.5400
183.0400 300.3300 9.5400
138.1400 280.8000 5.4600
157.8400 300.3400 9.5400
131.5200 302.2200 1.1900
134.5600 280.8100 5.4600
131.1000 300.3500 9.5400
144.7400 300.3600 9.5400
145.0100 300.3600 9.5400
156.9800 300.3500 9.5400
157.2200 300.3600 9.5400
157.9500 300.3600 9.5400
144.0900 300.3700 9.5400
131.3200 300.3800 9.5400
131.7900 300.3800 9.5400
170.8900 302.2700 1.1900
157.6400 300.3900 9.5400
130.9700 300.4000 9.5400
131.3800 302.2800 1.1900
144.8900 300.4100 9.5400
180.3900 280.8800 5.4600
144.0100 300.4400 9.5400
183.1400 300.4400 9.5400
157.3600 300.4500 9.5400
145.0200 300.4600 9.5400
157.5100 297.2500 7.2800
131.4800 297.2600 7.2800
144.4500 297.2700 7.2800
144.5500 297.2700 7.2800
170.8800 302.3700 1.1900
157.4200 297.3000 7.2800
141.4400 281.0200 5.4600
131.4000 297.3400 7.2800
137.9600 281.0500 5.4600
144.6100 297.3700 7.2800
157.6800 302.4600 1.1900
160.1500 279.4400 4.3300
157.4000 297.4000 7.2800
134.4400 281.0900 5.4600
141.4600 279.5000 4.3300
131.5900 297.4500 7.2800
157.6000 297.4500 7.2800
157.3500 279.2500 13.8100
128.5000 294.2500 5.0200
157.5900 279.2600 13.8100
180.2800 281.1400 5.4600
124.9800 294.2600 5.0200
131.4900 297.4800 7.2800
137.9400 279.2900 13.8100
128.5900 294.3000 5.0200
144.4100 279.3100 13.8100
157.3300 277.9800 3.2000
125.0800 294.3100 5.0200
128.4000 294.3100 5.0200
131.4700 279.3200 13.8100
176.9900 307.4700 4.5800
163.9600 307.4900 4.5800
125.2000 291.1700 2.7600
124.7700 291.1800 2.7600
157.6100 278.0700 3.2000
128.5700 294.4000 5.0200
128.3000 291.1900 2.7600
128.7100 291.1900 2.7600
170.4500 278.1100 3.2100
183.4700 278.1000 3.2000
125.0700 294.4300 5.0200
180.2100 291.2200 2.7600
173.6400 279.4700 13.8100
128.5700 291.2700 2.7600
157.9700 279.5100 13.8100
170.0500 279.5100 13.8100
124.8900 292.9100 3.8900
180.4900 279.5500 13.8100
176.9400 281.4300 5.4600
128.2700 291.3900 2.7600
128.7000 291.3900 2.7600
125.2000 291.4000 2.7600
176.9900 281.5300 5.4600
124.7800 291.4400 2.7600
176.0400 276.6100 6.8100
180.2000 281.6000 5.4600
131.4100 279.7400 13.8100
183.5000 279.7400 13.8100
128.3600 291.5300 2.7600
177.0000 281.6300 5.4600
125.0400 291.5500 2.7600
125.1500 291.5400 2.7600
128.5500 291.5500 2.7600
128.6500 291.5400 2.7600
144.5100 279.7600 13.8100
124.8100 291.5800 2.7600
180.2500 281.6900 5.4600
128.2800 291.6100 2.7600
175.9500 276.7600 6.8100
176.9500 281.7200 5.4600
176.0800 276.8000 6.8100
180.2000 281.7800 5.4600
177.0200 281.8200 5.4600
176.9600 281.9100 5.4600
170.4100 280.0600 13.8100
180.1800 281.9400 5.4600
127.8600 303.4000 1.1900
176.9500 282.0200 5.4600
180.2500 282.0300 5.4600
147.3100 282.0400 5.4600
180.1400 282.0800 5.4600
161.0100 303.5000 1.2000
177.0500 282.1100 5.4600
168.8300 277.3000 2.0700
176.9000 282.1200 5.4600
180.2800 282.1300 5.4600
173.5900 278.9200 3.2000
180.0800 282.1700 5.4600
180.5900 278.9600 3.2000
131.5700 290.5000 1.6300
147.2900 282.2100 5.4600
144.5300 290.5100 1.6300
177.0900 282.2100 5.4600
141.4500 279.0200 3.2000
173.5000 279.0200 3.2000
177.0000 279.0100 3.2000
176.9000 282.2300 5.4600
183.8500 290.5500 1.6300
141.0100 282.2500 5.4600
144.5500 285.4700 7.7200
134.0300 282.2600 5.4600
137.4900 282.2700 5.4600
180.5500 303.4300 10.6700
141.4500 303.4400 10.6700
157.5200 300.2700 8.4100
147.3000 282.3400 5.4600
151.2400 282.3400 5.4600
144.4900 300.2800 8.4100
134.0200 282.3600 5.4600
141.4200 282.3500 5.4600
147.7500 282.3600 5.4600
154.2000 282.3600 5.4600
137.5100 282.3700 5.4600
173.4300 279.2000 3.2000
173.4900 306.7900 12.9300
177.0900 279.2400 3.2000
157.4100 300.3900 8.4100
177.0200 282.4600 5.4600
176.9000 279.2500 3.2000
180.3800 279.2700 3.2000
131.3900 300.4100 8.4100
180.2600 282.4900 5.4600
141.4900 279.3000 3.2100
147.4900 279.2900 3.2000
150.9500 279.3000 3.2100
154.4800 279.3000 3.2000
180.6200 279.2900 3.2000
176.9200 282.5100 5.4600
154.5000 282.5300 5.4600
173.5400 306.8900 12.9300
151.1400 279.3400 3.2000
173.3600 279.3700 3.2100
147.6000 282.6100 5.4600
173.6000 279.3900 3.2000
150.8800 282.6200 5.4600
154.5800 282.6300 5.4600
147.3400 279.4300 3.2100
170.6100 279.1500 12.6800
134.5900 279.4300 3.2000
176.9300 279.4300 3.2000
131.5600 279.1700 12.6800
173.5300 307.0100 12.9300
154.3800 282.6600 5.4600
154.6500 279.4500 3.2000
183.4900 279.1800 12.6800
137.9500 279.4600 3.2000
144.4300 279.1900 12.6800
157.5400 279.1900 12.6800
151.1100 282.6800 5.4600
147.4300 282.7100 5.4600
147.6100 282.7100 5.4600
147.5400 279.5000 3.2000
151.0600 279.5000 3.2000
150.8800 282.7200 5.4600
154.5400 282.7300 5.4600
173.4800 307.1100 12.9300
154.4000 282.7600 5.4600
163.8300 307.3900 3.4500
125.1100 307.4300 3.4500
131.4500 277.9900 2.0700
170.0000 279.3600 12.6800
124.9100 294.3600 3.8900
167.0100 307.4700 3.4500
173.5300 307.2000 12.9300
124.9600 307.4900 3.4500
179.9700 307.4900 3.4500
128.3800 294.3800 3.8900
160.9000 307.5100 3.4600
161.0600 307.5300 3.4500
173.6600 279.4500 12.6800
173.4700 307.2900 12.9300
141.4500 279.4700 12.6800
138.0500 279.4800 12.6800
158.1300 279.5200 12.6800
177.0700 279.5100 12.6800
180.4500 279.5200 12.6800
173.5300 307.3800 12.9300
157.3500 279.6200 12.6800
128.6400 291.4100 1.6300
173.4800 307.4800 12.9300
170.3600 279.7200 12.6800
173.5100 307.5800 12.9300
131.3300 279.8400 12.6800
157.6600 279.8700 12.6800
180.3300 302.9100 9.5400
183.4300 288.2500 8.8600
173.5200 307.7900 12.9300
134.1100 278.6400 2.0700
144.5500 288.3000 8.8600
178.2200 283.4800 5.4600
131.3700 288.3600 8.8600
150.8900 288.3800 8.8600
177.7800 283.5800 5.4600
175.0800 283.5900 5.4600
183.3100 285.2200 6.6000
183.6700 285.2200 6.5900
177.6300 283.6200 5.4600
183.4800 288.4400 8.8500
178.2400 283.6500 5.4600
131.5000 288.4700 8.8500
170.1500 303.2700 9.5400
125.3800 293.6300 2.7600
125.0500 292.0300 1.6300
177.7800 283.7400 5.4600
180.8100 283.7400 5.4600
183.7000 285.3600 6.5900
144.1800 303.3000 9.5400
170.0400 303.2900 9.5400
170.2900 303.3000 9.5400
170.7100 303.3000 9.5400
177.6500 283.7700 5.4600
170.5200 303.3100 9.5400
144.7000 303.3300 9.5400
157.4900 303.3300 9.5400
157.7000 303.3200 9.5400
170.8100 303.3200 9.5400
171.0300 303.3300 9.5400
177.3400 283.8000 5.4600
131.6800 303.3400 9.5400
144.5000 303.3400 9.5400
144.8300 303.3400 9.5400
157.2700 303.3400 9.5400
170.9100 303.3400 9.5400
177.4700 283.8100 5.4600
180.0200 283.8100 5.4600
144.9300 303.3600 9.5400
157.1400 303.3500 9.5400
170.2000 303.3600 9.5400
144.0900 303.3700 9.5400
144.2900 303.3700 9.5400
179.9000 283.8400 5.4600
176.6100 283.8600 5.4600
131.4100 303.4000 9.5400
170.6600 303.4000 9.5400
179.7800 283.8700 5.4600
180.3700 283.8700 5.4600
157.5900 278.8000 11.5500
131.5900 280.6700 3.2000
134.5600 283.8900 5.4600
179.6800 283.8900 5.4600
144.8300 303.4400 9.5400
157.6400 303.4400 9.5400
157.5300 300.2300 7.2800
171.0400 303.4500 9.5400
150.9600 283.9200 5.4600
176.3600 283.9200 5.4600
177.0000 283.9200 5.4600
157.3600 303.4600 9.5400
141.5200 283.9300 5.4600
147.4800 283.9300 5.4600
180.0900 283.9300 5.4600
131.5700 300.2700 7.2800
144.4800 300.2700 7.2800
154.4600 283.9400 5.4600
176.9000 283.9400 5.4600
144.3800 303.4800 9.5400
145.0400 303.4800 9.5400
138.0300 283.9500 5.4600
176.2200 283.9500 5.4600
176.6300 283.9600 5.4600
176.9700 308.3300 12.9300
179.3300 283.9700 5.4600
151.0900 283.9800 5.4600
179.7700 283.9800 5.4600
179.9500 283.9800 5.4600
131.5100 277.5600 0.9500
150.8800 283.9900 5.4600
176.0400 283.9900 5.4600
147.4000 284.0000 5.4600
147.5800 284.0000 5.4600
154.5500 284.0000 5.4600
134.1000 279.1900 2.0700
175.9000 284.0200 5.4600
179.1600 284.0100 5.4600
176.5400 284.0300 5.4600
141.4600 284.9800 1.2800
157.6200 300.3700 7.2800
176.3600 284.0800 5.4600
179.5100 284.0800 5.4600
176.9900 282.4800 4.3300
175.7200 284.0900 5.4600
131.5700 300.4200 7.2800
176.2100 284.1100 5.4600
176.9700 308.4600 12.9300
144.4200 279.0500 11.5500
127.2100 307.1500 2.3200
